41.440746; 27.573870; -44.478436; 0; 1; 1; 1
-7.406350; 8.752971; -43.717934; 0; 1; 1; 1
-25.616750; -21.734428; -39.052834; 0; 1; 1; 1
-25.207851; -27.483929; -40.239136; 0; 1; 1; 1
8.287448; -49.527328; -43.463936; 0; 1; 1; 1
-67.738350; 42.053371; -42.487534; 0; 1; 1; 1
-23.418750; -32.104828; -14.703030; 0; 1; 1; 1
20.107449; -44.366528; -43.733234; 0; 1; 1; 1
1.563948; 46.917070; -43.762936; 0; 1; 1; 1
14.726348; 2.834671; -42.262234; 0; 1; 1; 1
-26.469350; -37.816231; -39.510430; 0; 1; 1; 1
7.287648; -1.290329; -43.189835; 0; 1; 1; 1
21.39497; -2.339129; -39.507935; 0; 1; 1; 1
-47.624554; 89.487770; -42.015034; 0; 1; 1; 1
-34.542351; 90.799568; -40.130535; 0; 1; 1; 1
21.317148; 84.723470; -43.679035; 0; 1; 1; 1
17.565647; 88.980171; -44.006634; 0; 1; 1; 1
17.052147; 76.751068; -44.126630; 0; 1; 1; 1
21.685747; 70.078369; -43.103535; 0; 1; 1; 1
11.192348; 72.775871; -44.521935; 0; 1; 1; 1
32.597748; 62.559570; -43.825035; 0; 1; 1; 1
42.014446; 58.035070; -44.348130; 0; 1; 1; 1
21.073147; -53.795231; -39.760735; 0; 1; 1; 1
30.462748; -55.690331; 39.293530; 0; 1; 1; 1
31.420048; -49.919430; -43.549130; 0; 1; 1; 1
25.672348; -30.741329; -45.158234; 0; 1; 1; 1
-29.820050; -15.416229; -38.849934; 0; 1; 1; 1
-24.567451; -8.999229; -39.188630; 0; 1; 1; 1
-14.355350; -40.627929; -42.976234; 0; 1; 1; 1
-2.433950; -9.499929; -42.194730; 0; 1; 1; 1
16.680048; -23.196329; -44.353935; 0; 1; 1; 1
29.688448; 80.123169; -44.859535; 0; 1; 1; 1
41.679848; 50.527670; -45.799230; 0; 1; 1; 1
21.260647; 66.545975; -46.877335; 0; 1; 1; 1
35.620449; -4.077429; -39.385735; 0; 1; 1; 1
14.075848; 14.660571; -43.315930; 0; 1; 1; 1
-32.413151; 8.124571; -42.927536; 0; 1; 1; 1
-23.534950; 3.810871; -44.763935; 0; 1; 1; 1
-13.944850; 7.210071; -43.812836; 0; 1; 1; 1
106.146049; 93.958435; -43.024010; 0; 1; 1; 1
110.499350; 93.032135; -41.528709; 0; 1; 1; 1
90.445950; 87.703331; -38.875910; 0; 1; 1; 1
106.176949; 89.672737; -42.776909; 0; 1; 1; 1
110.202446; 85.911230; -42.875511; 0; 1; 1; 1
106.500648; 84.085236; -42.753811; 0; 1; 1; 1
102.282150; 82.240334; -39.795010; 0; 1; 1; 1
110.354950; 81.831030; -45.413710; 0; 1; 1; 1
97.682747; 77.690130; 39.693111; 0; 1; 1; 1
105.949448; 77.379330; -43.885509; 0; 1; 1; 1
110.343048; 77.425835; -43.244810; 0; 1; 1; 1
106.502950; 73.304930; -44.542110; 0; 1; 1; 1
94.069351; 73.123337; -38.863710; 0; 1; 1; 1
110.160751; 71.380330; -41.565510; 0; 1; 1; 1
103.008550; 69.492035; -39.630211; 0; 1; 1; 1
91.755051; 68.563230; -38.846809; 0; 1; 1; 1
106.457451; 67.107834; -41.935711; 0; 1; 1; 1
110.259450; 65.217130; -41.68611; 0; 1; 1; 1
110.391647; 60.826730; -40.900311; 0; 1; 1; 1
106.173149; 58.848730; -40.015911; 0; 1; 1; 1
110.590650; 58.735134; -42.682310; 0; 1; 1; 1
73.774551; 57.837530; -39.294310; 0; 1; 1; 1
68.790947; 54.874230; -38.844109; 0; 1; 1; 1
69.554350; 57.623634; -39.312710; 0; 1; 1; 1
76.798347; 57.808530; -41.606710; 0; 1; 1; 1
72.222847; 52.932934; -38.976009; 0; 1; 1; 1
73.212448; 47.243330; -43.803110; 0; 1; 1; 1
78.522247; 51.888535; -41.047310; 0; 1; 1; 1
81.389946; 56.440735; -39.880409; 0; 1; 1; 1
88.092049; 57.180330; -39.047211; 0; 1; 1; 1
86.059647; 53.396730; -40.957010; 0; 1; 1; 1
81.901749; 49.423435; -39.280710; 0; 1; 1; 1
77.037450; 43.665535; -39.135109; 0; 1; 1; 1
82.252350; 42.774430; -40.768110; 0; 1; 1; 1
85.658750; 46.586030; -42.528011; 0; 1; 1; 1
87.774849; 49.080830; -38.861610; 0; 1; 1; 1
90.788048; 52.466630; -39.661209; 0; 1; 1; 1
92.524551; 56.614735; -39.031410; 0; 1; 1; 1
96.634346; 54.209335; -40.723110; 0; 1; 1; 1
93.042050; 48.670734; -41.198109; 0; 1; 1; 1
89.228050; 43.816830; -40.660410; 0; 1; 1; 1
84.185349; 38.525536; -39.459911; 0; 1; 1; 1
72.788651; 61.038136; -39.608910; 0; 1; 1; 1
78.115547; 60.373430; -39.973011; 0; 1; 1; 1
84.669449; 61.898630; -40.151510; 0; 1; 1; 1
91.526350; 60.887730; -39.352009; 0; 1; 1; 1
95.704350; 61.448334; -39.355709; 0; 1; 1; 1
102.273651; 61.750730; -43.666210; 0; 1; 1; 1
99.050650; 57.691030; -39.011211; 0; 1; 1; 1
104.197350; 53.409435; -40.015911; 0; 1; 1; 1
101.486250; 50.127434; -40.98510; 0; 1; 1; 1
94.058050; 43.362034; -41.595509; 0; 1; 1; 1
90.842651; 38.26730; -43.609810; 0; 1; 1; 1
84.188049; 36.158634; -41.257410; 0; 1; 1; 1
66.110250; 47.428830; -39.052210; 0; 1; 1; 1
71.543350; 40.923035; -39.776409; 0; 1; 1; 1
65.198850; 51.870335; -38.940411; 0; 1; 1; 1
65.562447; 57.946230; -39.109810; 0; 1; 1; 1
67.718450; 63.424435; -39.220909; 0; 1; 1; 1
89.280850; -6.7465566; -48.085510; 0; 1; 1; 1
97.999550; -53.421768; -42.372311; 0; 1; 1; 1
113.290250; -1.500766; -46.764410; 0; 1; 1; 1
144.39049; -17.336166; -48.549210; 0; 1; 1; 1
86.004646; 23.646935; -44.757610; 0; 1; 1; 1
63.654449; 40.900635; -46.021511; 0; 1; 1; 1
67.897751; 37.240635; -44.516411; 0; 1; 1; 1
72.735350; 33.596535; -44.191410; 0; 1; 1; 1
107.150948; 5.299734; -41.701010; 0; 1; 1; 1
97.093750; 0.281634; -41.977211; 0; 1; 1; 1
90.811150; -0.194466; -44.744011; 0; 1; 1; 1
58.869751; 5.547434; -46.051811; 0; 1; 1; 1
59.306751; -59.087467; -42.896309; 0; 1; 1; 1
43.120150; 27.567330; -45.159611; 0; 1; 1; 1
52.298950; 27.977734; -43.096611; 0; 1; 1; 1
42.984348; 49.137234; -45.944111; 0; 1; 1; 1
57.334351; 45.899635; -45.274210; 0; 1; 1; 1
53.930649; 48.276535; -42.605511; 0; 1; 1; 1
49.027451; 51.721330; -45.149811; 0; 1; 1; 1
42.670551; 57.947735; -45.061810; 0; 1; 1; 1
49.122448; 61.918530; -43.481710; 0; 1; 1; 1
54.743248; 62.770830; -39.255510; 0; 1; 1; 1
126.962646; 73.179535; -40.926811; 0; 1; 1; 1
119.466550; 72.756935; -42.214111; 0; 1; 1; 1
149.770844; 51.765230; -41.605511; 0; 1; 1; 1
130.506040; 15.877730; -47.832710; 0; 1; 1; 1
145.799650; 34.077335; -44.07710; 0; 1; 1; 1
98.691948; -4.289166; -42.803110; 0; 1; 1; 1
71.551750; -13.813167; -45.389511; 0; 1; 1; 1
77.648849; -13.758266; -45.732910; 0; 1; 1; 1
105.362549; -29.876966; -47.543911; 0; 1; 1; 1
113.857350; -17.326967; -41.861309; 0; 1; 1; 1
114.697548; -23.040766; -43201511; 0; 1; 1; 1
139.18151; -25.669765; -44.623909; 0; 1; 1; 1
143.224045; -26.286766; -42.607811; 0; 1; 1; 1
12.506650; -58.818768; -43.684910; 0; 1; 1; 1
101.442551; -54.446766; -41.021709; 0; 1; 1; 1
96.338348; -54.168167; -42.661610; 0; 1; 1; 1
73.96848; -56.730865; -41.942509; 0; 1; 1; 1
-66.42654; 17.660671; -42.232834; 0; 1; 1; 1
61.034150; 13.207171; -40.086630; 0; 1; 1; 1
-26.389650; -60.663029; -47.629830; 0; 1; 1; 1
-32.795950; -56.352127; -40.675034; 0; 1; 1; 1
-38.367451; -55.514229; -40.299230; 0; 1; 1; 1
-38.553951; -53.474728; -39.623135; 0; 1; 1; 1
-34.807354; -50.448029; -42.910835; 0; 1; 1; 1
-37.907450; -49.158230; -38.864334; 0; 1; 1; 1
-40.929554; -50.076729; -40.141030; 0; 1; 1; 1
-45.944150; -47.114628; -40.197735; 0; 1; 1; 1
-46.185750; -43.762131; -39.646230; 0; 1; 1; 1
-38.128151; -43.622929; -39.023235; 0; 1; 1; 1
-33.116750; -44.245029; -41.555134; 0; 1; 1; 1
-34.552850; -39.464828; -42.011036; 0; 1; 1; 1
-39.341454; -40.561928; -39.421330; 0; 1; 1; 1
-44.687351; -40.072830; -40.417630; 0; 1; 1; 1
-49.643051; -39.905331; -39.935330; 0; 1; 1; 1
-57.020851; -40.175228; -39.240430; 0; 1; 1; 1
-32.546951; -36.191310; -39.324635; 0; 1; 1; 1
-36.185850; -36.521130; -39.132630; 0; 1; 1; 1
-42.580850; -35.523727; -41.877235; 0; 1; 1; 1
-45.744450; -35.518028; -41.385834; 0; 1; 1; 1
-54.032350; -35.352329; -39.371334; 0; 1; 1; 1
-30.949850; -31.258629; -43.987736; 0; 1; 1; 1
-36.440550; -31.470329; -38.917835; 0; 1; 1; 1
-41.202950; -32.396729; -40.144135; 0; 1; 1; 1
-50.147550; -32.483627; -39.957935; 0; 1; 1; 1
-32.708054; -28.621729; -39.000034; 0; 1; 1; 1
-40.741750; -28.045328; -43.358234; 0; 1; 1; 1
-52.652851; -27.066130; -40.477535; 0; 1; 1; 1
-31.997650; -25.240728; -39.300130; 0; 1; 1; 1
-43.519051; -24.795729; -40.023130; 0; 1; 1; 1
-52.319750; -24.391230; -42.343235; 0; 1; 1; 1
-38.285250; -21.763430; -39.172730; 0; 1; 1; 1
-42.595951; -21.563728; -41.037235; 0; 1; 1; 1
-47.197151; -21.630928; -38.851830; 0; 1; 1; 1
-54.122250; -21.358528; -40.467530; 0; 1; 1; 1
-57.617554; -20.928530; -41.808834; 0; 1; 1; 1
-69.352750; -25.356930; -40.246834; 0; 1; 1; 1
-62.524551; -39.680229; -38.974735; 0; 1; 1; 1
-59.199750; -26.580429; -38.897034; 0; 1; 1; 1
-36.324750; -18.152229; -40.867435; 0; 1; 1; 1
-42.141050; -17.727030; -39.242730; 0; 1; 1; 1
-51.685350; -17.766129; -41.315136; 0; 1; 1; 1
-60.330654; -16.755629; -40.938534; 0; 1; 1; 1
-39.581250; -13.150629; -38.850136; 0; 1; 1; 1
-48.980350; -13.152429; -38.886635; 0; 1; 1; 1
-56.662850; -11.147729; -43.018930; 0; 1; 1; 1
-38.949250; -7.759429; -42.385735; 0; 1; 1; 1
-42.395451; -8.180829; -39.007730; 0; 1; 1; 1
-50.927850; -8.934929; -43.028130; 0; 1; 1; 1
-56.033951; -7.801829; -42.515335; 0; 1; 1; 1
-47.048250; -5.578629; -43.883736; 0; 1; 1; 1
-29.349150; -2.961029; -41.543835; 0; 1; 1; 1
-56.763851; -4.168529; -38.920834; 0; 1; 1; 1
-44.737854; 0.344771; -42.715230; 0; 1; 1; 1
-49.992554; 2.968271; -42.470830; 0; 1; 1; 1
-64.770650; -2.096329; -40.142235; 0; 1; 1; 1
-52.430650; 5.074171; -43.171936; 0; 1; 1; 1
-56.687150; 0.939271; -39.231834; 0; 1; 1; 1
-59.833250; -1.032029; -40.617730; 0; 1; 1; 1
-68.827650; 1.925471; -42.539036; 0; 1; 1; 1
-60.578854; 5.632671; -39.770535; 0; 1; 1; 1
-65.622856; 8.952571; -39.150234; 0; 1; 1; 1
-72.204350; 6.409571; -42.005035; 0; 1; 1; 1